# .PCD v0.7 - Point Cloud Data file format
VERSION 0.7
FIELDS x y z
SIZE 4 4 4
TYPE F F F
COUNT 1 1 1
WIDTH 2031
HEIGHT 1
VIEWPOINT 0 0 0 1 0 0 0
POINTS 2031
DATA ascii
10.25 -20.65 0.85000002
10.25 -20.75 0.94999999
10.35 -20.75 0.94999999
10.35 -20.549999 0.85000002
10.25 -20.549999 0.94999999
10.25 -20.450001 0.94999999
10.45 -20.75 0.94999999
10.55 -20.75 0.94999999
10.65 -20.75 0.94999999
10.75 -20.75 0.94999999
10.75 -20.65 0.94999999
10.55 -20.549999 0.85000002
10.55 -20.450001 0.85000002
10.75 -20.549999 0.94999999
10.85 -20.75 0.94999999
10.85 -20.65 0.94999999
10.95 -20.65 0.94999999
11.15 -20.75 0.94999999
11.05 -20.65 0.94999999
11.15 -20.65 0.94999999
10.85 -20.549999 0.94999999
10.95 -20.549999 0.94999999
11.05 -20.549999 0.94999999
11.15 -20.549999 0.94999999
11.05 -20.450001 0.94999999
11.15 -20.450001 0.94999999
10.55 -20.35 0.94999999
10.65 -20.35 0.94999999
10.75 -20.35 0.94999999
11.15 -20.049999 0.94999999
10.25 -19.35 0.94999999
10.95 -19.85 0.94999999
11.05 -19.950001 0.85000002
11.15 -19.950001 0.85000002
11.05 -19.85 0.85000002
11.05 -19.950001 0.94999999
11.15 -19.950001 0.94999999
11.05 -19.85 0.94999999
11.15 -19.85 0.94999999
10.95 -19.75 0.85000002
10.85 -19.65 0.85000002
10.95 -19.65 0.85000002
10.95 -19.75 0.94999999
10.85 -19.65 0.94999999
10.95 -19.65 0.94999999
11.05 -19.75 0.94999999
11.15 -19.75 0.94999999
11.05 -19.65 0.94999999
11.15 -19.65 0.94999999
10.65 -19.549999 0.85000002
10.75 -19.549999 0.85000002
10.65 -19.450001 0.85000002
10.75 -19.450001 0.85000002
10.75 -19.450001 0.94999999
10.55 -19.35 0.85000002
10.45 -19.25 0.85000002
10.55 -19.25 0.85000002
10.55 -19.25 0.94999999
10.65 -19.35 0.85000002
10.65 -19.25 0.85000002
10.75 -19.25 0.85000002
10.65 -19.35 0.94999999
10.75 -19.35 0.94999999
10.65 -19.25 0.94999999
10.75 -19.25 0.94999999
10.85 -19.549999 0.85000002
10.95 -19.549999 0.85000002
10.85 -19.450001 0.85000002
10.95 -19.450001 0.85000002
10.85 -19.549999 0.94999999
10.95 -19.549999 0.94999999
10.85 -19.450001 0.94999999
10.95 -19.450001 0.94999999
11.05 -19.549999 0.94999999
11.15 -19.549999 0.94999999
11.05 -19.450001 0.94999999
11.15 -19.450001 0.94999999
10.85 -19.35 0.85000002
10.85 -19.25 0.85000002
10.85 -19.35 0.94999999
10.95 -19.35 0.94999999
10.85 -19.25 0.94999999
11.05 -19.25 0.85000002
11.05 -19.35 0.94999999
11.15 -19.35 0.94999999
11.05 -19.25 0.94999999
11.95 -20.15 0.75
11.95 -20.049999 0.75
12.35 -20.75 0.75
12.35 -20.65 0.75
12.25 -20.549999 0.75
12.35 -20.549999 0.75
12.25 -20.450001 0.75
12.35 -20.450001 0.75
12.45 -20.549999 0.75
12.05 -20.35 0.75
12.05 -20.25 0.75
12.15 -20.25 0.75
12.35 -20.35 0.75
12.05 -20.15 0.75
12.45 -20.25 0.75
11.85 -19.950001 0.75
11.95 -19.950001 0.75
11.85 -19.85 0.75
11.95 -19.85 0.75
11.75 -19.75 0.64999998
11.75 -19.75 0.75
11.65 -19.65 0.75
11.75 -19.65 0.75
11.85 -19.75 0.75
11.85 -19.65 0.75
11.55 -19.549999 0.75
11.55 -19.450001 0.75
11.35 -19.25 0.75
11.45 -19.25 0.64999998
11.45 -19.35 0.75
11.55 -19.35 0.75
11.45 -19.25 0.75
11.55 -19.25 0.75
11.65 -19.450001 0.64999998
11.65 -19.549999 0.75
11.75 -19.549999 0.75
11.65 -19.450001 0.75
11.75 -19.450001 0.75
11.85 -19.549999 0.75
11.95 -19.549999 0.75
11.85 -19.450001 0.75
11.95 -19.450001 0.75
11.65 -19.35 0.75
11.75 -19.35 0.75
11.65 -19.25 0.75
11.75 -19.25 0.75
11.95 -19.35 0.75
12.05 -19.950001 0.75
12.15 -19.85 0.75
12.05 -19.549999 0.75
12.05 -19.35 0.75
12.15 -19.35 0.75
12.05 -19.25 0.75
12.15 -19.25 0.75
12.75 -19.35 0.75
11.25 -20.75 0.94999999
11.35 -20.75 0.94999999
11.25 -20.65 0.94999999
11.45 -20.75 0.94999999
11.55 -20.75 0.94999999
11.55 -20.65 0.94999999
11.25 -20.549999 0.94999999
11.35 -20.549999 0.94999999
11.25 -20.450001 0.94999999
11.35 -20.450001 0.94999999
11.55 -20.450001 0.85000002
11.45 -20.549999 0.94999999
11.55 -20.549999 0.94999999
11.45 -20.450001 0.94999999
11.55 -20.450001 0.94999999
11.75 -20.65 0.85000002
11.65 -20.75 0.94999999
11.75 -20.75 0.94999999
11.65 -20.65 0.94999999
11.85 -20.75 0.85000002
11.85 -20.65 0.85000002
11.95 -20.75 0.94999999
11.65 -20.450001 0.85000002
11.75 -20.450001 0.85000002
11.65 -20.549999 0.94999999
11.75 -20.549999 0.94999999
11.65 -20.450001 0.94999999
11.75 -20.450001 0.94999999
11.85 -20.549999 0.85000002
11.85 -20.450001 0.85000002
11.95 -20.450001 0.85000002
11.25 -20.35 0.94999999
11.35 -20.35 0.94999999
11.25 -20.25 0.94999999
11.35 -20.25 0.94999999
11.55 -20.35 0.85000002
11.45 -20.25 0.85000002
11.45 -20.35 0.94999999
11.55 -20.35 0.94999999
11.45 -20.25 0.94999999
11.55 -20.25 0.94999999
11.25 -20.15 0.85000002
11.25 -20.049999 0.85000002
11.35 -20.049999 0.85000002
11.25 -20.15 0.94999999
11.35 -20.15 0.94999999
11.25 -20.049999 0.94999999
11.35 -20.049999 0.94999999
11.45 -20.15 0.85000002
11.55 -20.15 0.85000002
11.45 -20.049999 0.85000002
11.55 -20.049999 0.85000002
11.45 -20.15 0.94999999
11.55 -20.15 0.94999999
11.45 -20.049999 0.94999999
11.55 -20.049999 0.94999999
11.65 -20.35 0.85000002
11.65 -20.25 0.85000002
11.65 -20.35 0.94999999
11.75 -20.25 0.94999999
11.95 -20.35 0.85000002
11.95 -20.25 0.85000002
11.95 -20.35 0.94999999
11.95 -20.25 0.94999999
11.65 -20.15 0.85000002
11.75 -20.15 0.85000002
11.65 -20.049999 0.85000002
11.75 -20.049999 0.85000002
11.65 -20.15 0.94999999
11.75 -20.15 0.94999999
11.65 -20.049999 0.94999999
11.75 -20.049999 0.94999999
11.95 -20.15 0.85000002
11.85 -20.049999 0.85000002
11.95 -20.049999 0.85000002
11.85 -20.15 0.94999999
11.95 -20.15 0.94999999
11.85 -20.049999 0.94999999
11.95 -20.049999 0.94999999
12.05 -20.75 0.85000002
12.05 -20.65 0.85000002
12.15 -20.65 0.85000002
12.35 -20.75 0.94999999
12.35 -20.65 0.94999999
12.05 -20.549999 0.85000002
12.15 -20.549999 0.85000002
12.05 -20.450001 0.85000002
12.15 -20.450001 0.85000002
12.05 -20.549999 0.94999999
12.15 -20.549999 0.94999999
12.05 -20.450001 0.94999999
12.15 -20.450001 0.94999999
12.25 -20.450001 0.94999999
12.45 -20.75 0.94999999
12.45 -20.65 0.94999999
12.75 -20.450001 0.94999999
12.75 -20.549999 1.05
12.05 -20.35 0.85000002
12.15 -20.35 0.85000002
12.05 -20.25 0.85000002
12.15 -20.35 0.94999999
12.05 -20.25 0.94999999
12.15 -20.25 0.94999999
12.35 -20.25 0.85000002
12.25 -20.25 0.94999999
12.05 -20.15 0.85000002
12.05 -20.049999 0.85000002
12.25 -20.049999 0.85000002
12.65 -20.15 0.94999999
12.65 -20.049999 0.94999999
11.25 -19.950001 0.94999999
11.35 -19.950001 0.94999999
11.25 -19.85 0.94999999
11.35 -19.85 0.94999999
11.45 -19.950001 0.85000002
11.55 -19.950001 0.85000002
11.45 -19.85 0.85000002
11.55 -19.85 0.85000002
11.45 -19.950001 0.94999999
11.55 -19.950001 0.94999999
11.45 -19.85 0.94999999
11.35 -19.75 0.85000002
11.35 -19.65 0.85000002
11.25 -19.75 0.94999999
11.35 -19.75 0.94999999
11.25 -19.65 0.94999999
11.45 -19.75 0.85000002
11.55 -19.75 0.85000002
11.45 -19.65 0.85000002
11.55 -19.65 0.85000002
11.45 -19.75 0.94999999
11.55 -19.75 0.94999999
11.55 -19.65 0.94999999
11.65 -19.950001 0.85000002
11.75 -19.950001 0.85000002
11.65 -19.85 0.85000002
11.75 -19.85 0.85000002
11.65 -19.950001 0.94999999
11.75 -19.950001 0.94999999
11.85 -19.950001 0.85000002
11.95 -19.950001 0.85000002
11.85 -19.85 0.85000002
11.95 -19.85 0.85000002
11.85 -19.950001 0.94999999
11.85 -19.85 0.94999999
11.95 -19.85 0.94999999
11.65 -19.75 0.85000002
11.75 -19.75 0.85000002
11.65 -19.65 0.85000002
11.75 -19.65 0.85000002
11.65 -19.75 0.94999999
11.75 -19.75 0.94999999
11.65 -19.65 0.94999999
11.75 -19.65 0.94999999
11.85 -19.75 0.85000002
11.95 -19.75 0.85000002
11.85 -19.65 0.85000002
11.95 -19.65 0.85000002
11.85 -19.75 0.94999999
11.95 -19.75 0.94999999
11.85 -19.65 0.94999999
11.95 -19.65 0.94999999
11.35 -19.549999 0.85000002
11.25 -19.450001 0.85000002
11.35 -19.450001 0.85000002
11.25 -19.549999 0.94999999
11.25 -19.450001 0.94999999
11.45 -19.549999 0.85000002
11.55 -19.549999 0.85000002
11.45 -19.450001 0.85000002
11.25 -19.35 0.85000002
11.35 -19.35 0.85000002
11.25 -19.25 0.85000002
11.35 -19.25 0.85000002
11.25 -19.35 0.94999999
11.45 -19.25 0.85000002
11.55 -19.25 0.85000002
11.45 -19.25 0.94999999
11.55 -19.25 0.94999999
11.75 -19.549999 0.85000002
11.75 -19.450001 0.85000002
11.65 -19.549999 0.94999999
11.75 -19.549999 0.94999999
11.65 -19.450001 0.94999999
11.85 -19.549999 0.85000002
11.95 -19.549999 0.85000002
11.85 -19.450001 0.85000002
11.95 -19.450001 0.85000002
11.95 -19.549999 0.94999999
11.95 -19.450001 0.94999999
11.65 -19.35 0.85000002
11.65 -19.25 0.85000002
12.05 -19.950001 0.85000002
12.05 -19.75 0.85000002
12.15 -19.75 0.85000002
12.05 -19.65 0.85000002
12.15 -19.65 0.85000002
12.05 -19.75 0.94999999
12.05 -19.65 0.94999999
12.25 -19.75 0.85000002
12.35 -19.75 0.85000002
12.25 -19.65 0.85000002
12.35 -19.65 0.85000002
12.55 -19.85 0.85000002
12.55 -19.950001 0.94999999
12.55 -19.85 0.94999999
12.65 -19.950001 0.94999999
12.45 -19.75 0.85000002
12.55 -19.75 0.85000002
12.45 -19.65 0.85000002
12.55 -19.75 0.94999999
12.45 -19.65 0.94999999
12.55 -19.65 0.94999999
12.65 -19.75 0.85000002
12.05 -19.549999 0.85000002
12.05 -19.549999 0.94999999
12.15 -19.549999 0.94999999
12.15 -19.450001 0.94999999
12.25 -19.549999 0.94999999
12.25 -19.450001 0.94999999
12.05 -19.35 0.85000002
12.15 -19.35 0.85000002
12.05 -19.25 0.85000002
12.15 -19.25 0.85000002
12.25 -19.35 0.85000002
12.35 -19.35 0.85000002
12.25 -19.25 0.85000002
12.35 -19.25 0.85000002
12.25 -19.35 0.94999999
12.25 -19.25 0.94999999
12.35 -19.25 0.94999999
12.45 -19.549999 0.85000002
12.55 -19.549999 0.85000002
12.45 -19.450001 0.85000002
12.55 -19.450001 0.85000002
12.45 -19.549999 0.94999999
12.65 -19.450001 0.85000002
12.75 -19.450001 0.94999999
12.55 -19.35 0.85000002
12.45 -19.25 0.85000002
12.55 -19.25 0.85000002
12.45 -19.25 0.94999999
12.65 -19.35 0.85000002
12.65 -19.25 0.85000002
12.75 -19.25 0.85000002
12.75 -19.25 0.94999999
10.75 -22.35 2.3499999
10.65 -22.25 2.3499999
10.55 -22.15 2.3499999
11.15 -22.35 2.05
11.15 -22.25 2.05
10.85 -22.35 2.25
11.15 -22.35 2.3499999
11.15 -22.25 2.3499999
10.15 -22.35 2.6500001
10.25 -22.25 2.6500001
10.55 -22.049999 2.75
11.05 -22.049999 2.45
10.85 -22.35 2.6500001
10.85 -22.25 2.75
11.15 -22.25 2.6500001
10.95 -22.15 2.75
10.95 -22.049999 2.75
11.05 -22.15 2.6500001
11.15 -22.15 2.6500001
11.05 -22.049999 2.6500001
11.15 -22.049999 2.6500001
10.65 -21.950001 2.75
11.05 -21.950001 2.45
11.15 -21.85 2.45
11.15 -21.75 2.45
10.95 -21.950001 2.75
11.05 -21.950001 2.6500001
11.15 -21.85 2.75
11.05 -21.75 2.75
11.15 -21.75 2.75
11.15 -21.65 2.75
10.85 -22.35 2.8499999
10.95 -22.25 2.8499999
10.95 -22.35 2.95
10.95 -22.25 2.95
10.95 -22.049999 2.95
11.05 -22.15 2.8499999
11.15 -22.049999 2.8499999
10.85 -21.85 2.8499999
10.85 -21.75 2.8499999
10.85 -21.65 2.8499999
9.8500004 -21.549999 2.6500001
11.15 -21.549999 2.45
11.15 -21.549999 2.75
11.15 -21.450001 2.75
10.95 -21.25 2.75
11.15 -21.35 2.75
10.75 -21.35 2.8499999
10.95 -21.549999 2.8499999
10.85 -21.15 2.8499999
10.85 -21.049999 2.8499999
10.95 -20.950001 2.8499999
10.95 -20.85 2.8499999
11.45 -22.25 1.65
11.55 -22.25 1.65
11.25 -22.15 1.65
11.35 -22.049999 1.65
11.55 -22.15 1.65
11.45 -22.35 1.95
11.65 -22.35 1.85
11.75 -22.25 1.85
11.75 -22.15 1.85
11.35 -21.950001 1.65
11.35 -21.65 1.65
11.35 -22.35 2.05
11.35 -22.25 2.05
11.55 -22.25 2.05
11.25 -22.15 2.05
11.25 -22.049999 2.05
11.35 -22.049999 2.05
11.45 -22.15 2.05
11.55 -22.15 2.05
11.55 -22.049999 2.05
11.25 -22.35 2.3499999
11.25 -22.15 2.3499999
11.35 -22.049999 2.3499999
11.85 -22.35 2.05
11.65 -22.25 2.3499999
11.35 -21.950001 2.05
11.35 -21.85 2.05
11.45 -21.85 2.05
11.35 -21.65 2.05
11.55 -21.75 2.05
11.55 -21.65 2.05
11.35 -21.950001 2.3499999
11.45 -21.85 2.3499999
11.45 -21.75 2.3499999
12.05 -22.25 2.1500001
12.15 -22.15 2.1500001
12.15 -22.049999 2.1500001
12.35 -22.15 2.3499999
12.35 -22.049999 2.3499999
12.65 -21.85 2.3499999
11.35 -21.549999 1.65
11.45 -21.450001 1.75
11.45 -21.35 1.75
11.45 -21.25 1.75
11.25 -21.549999 2.05
11.25 -21.450001 2.05
11.55 -21.35 2.1500001
11.95 -21.549999 2.1500001
11.95 -21.15 2.1500001
12.05 -21.049999 2.25
12.05 -20.950001 2.25
11.45 -22.35 2.55
11.55 -22.25 2.55
11.25 -22.049999 2.45
11.35 -22.35 2.6500001
11.35 -22.35 2.75
11.55 -22.35 2.6500001
11.45 -22.25 2.6500001
11.45 -22.25 2.75
11.25 -22.049999 2.6500001
11.45 -22.15 2.6500001
11.65 -22.049999 2.55
11.95 -22.35 2.75
11.95 -22.25 2.75
11.25 -21.85 2.45
11.35 -21.75 2.45
11.35 -21.65 2.45
11.35 -21.65 2.75
11.95 -21.85 2.75
11.95 -21.75 2.75
11.25 -21.950001 2.8499999
11.25 -21.950001 3.05
12.15 -21.65 3.05
11.25 -21.450001 2.45
11.45 -21.549999 2.45
11.45 -21.450001 2.45
11.25 -21.35 2.45
11.35 -21.25 2.55
11.55 -21.35 2.45
11.35 -21.15 2.55
11.35 -21.049999 2.55
11.35 -20.85 2.55
12.05 -21.549999 3.05
11.05 -20.75 2.8499999
11.05 -20.549999 2.8499999
12.05 -20.75 2.25
9.1499996 -23.549999 4.25
9.25 -23.450001 4.25
10.05 -24.35 4.6500001
10.15 -24.25 4.6500001
10.15 -24.049999 4.75
9.6499996 -23.85 4.0500002
9.8500004 -23.85 4.0500002
12.35 -23.75 3.25
12.25 -23.65 3.25
12.15 -23.549999 3.25
12.35 -23.15 3.25
12.25 -23.049999 3.25
12.35 -22.75 3.25
12.25 -22.65 3.25
6.8499999 -22.15 3.3499999
7.0500002 -21.15 3.3499999
7.1500001 -21.15 3.3499999
7.75 -21.35 3.3499999
7.75 -21.25 3.3499999
8.0500002 -21.15 3.55
8.75 -20.85 3.45
8.25 -21.049999 3.75
8.8500004 -21.450001 3.55
8.8500004 -21.049999 4.1500001
7.9499998 -19.25 3.95
8.4499998 -20.75 3.25
9.3500004 -20.450001 3.25
8.6499996 -19.65 3.3499999
8.5500002 -19.450001 3.3499999
8.3500004 -19.65 3.95
8.4499998 -19.85 3.95
8.0500002 -19.549999 3.95
8.0500002 -19.35 3.95
12.25 -22.25 3.25
12.15 -22.15 3.25
12.25 -21.65 3.25
12.15 -21.549999 3.25
9.8500004 -20.35 3.55
9.75 -20.549999 3.6500001
0.94999999 -19.049999 0.75
1.05 -19.15 0.75
0.94999999 -18.950001 0.75
0.94999999 -18.85 0.75
0.94999999 -18.75 0.64999998
1.05 -18.75 0.75
1.05 -18.65 0.75
1.15 -18.65 0.75
1.05 -18.549999 0.75
1.15 -18.549999 0.75
1.15 -18.450001 0.75
0.050000001 -18.25 0.64999998
0.050000001 -18.15 0.64999998
0.15000001 -18.15 0.64999998
0.15000001 -18.049999 0.75
0.25 -18.15 0.64999998
0.25 -18.049999 0.75
0.34999999 -17.950001 0.75
0.050000001 -17.75 0.75
1.15 -18.049999 0.75
1.25 -18.35 0.75
1.25 -18.25 0.75
1.35 -18.25 0.75
1.45 -18.25 0.75
1.35 -18.15 0.64999998
1.35 -18.049999 0.64999998
1.45 -18.15 0.64999998
1.45 -18.049999 0.64999998
1.55 -18.049999 0.64999998
1.55 -18.15 0.75
1.15 -17.950001 0.75
1.55 -17.950001 0.55000001
1.25 -17.950001 0.75
1.35 -17.950001 0.75
1.35 -17.85 0.75
1.45 -17.950001 0.64999998
1.55 -17.950001 0.64999998
1.45 -17.85 0.64999998
1.55 -17.85 0.64999998
1.45 -17.950001 0.75
1.45 -17.85 0.75
1.55 -17.85 0.75
1.45 -17.75 0.75
1.55 -17.75 0.75
0.050000001 -19.15 1.05
0.050000001 -18.549999 0.94999999
0.25 -18.450001 0.94999999
0.050000001 -19.15 1.35
0.050000001 -18.65 1.35
0.050000001 -18.549999 1.25
0.050000001 -18.549999 1.35
0.15000001 -18.549999 1.35
0.25 -18.549999 1.35
0.34999999 -18.549999 1.35
0.050000001 -18.450001 1.45
0.15000001 -18.450001 1.45
0.25 -18.450001 1.45
0.34999999 -18.450001 1.45
0.44999999 -18.549999 1.35
0.44999999 -18.450001 1.45
0.94999999 -19.049999 0.85000002
1.05 -19.15 0.85000002
1.05 -19.049999 0.85000002
1.15 -19.15 0.94999999
1.15 -19.049999 0.94999999
0.94999999 -18.950001 0.85000002
1.05 -18.950001 0.85000002
1.05 -18.85 0.85000002
1.15 -18.950001 0.94999999
1.15 -18.85 0.94999999
1.25 -18.85 0.94999999
1.25 -19.049999 1.05
1.55 -19.049999 1.15
1.15 -18.75 0.85000002
1.15 -18.65 0.85000002
1.15 -18.549999 0.85000002
1.15 -18.450001 0.85000002
0.94999999 -18.549999 1.05
1.35 -18.75 0.94999999
1.45 -18.65 0.94999999
1.25 -18.549999 0.85000002
1.35 -18.450001 0.94999999
1.45 -18.450001 0.94999999
1.25 -18.75 1.05
1.25 -18.549999 1.05
1.45 -18.549999 1.05
1.55 -18.549999 1.15
1.05 -18.65 1.25
0.94999999 -18.549999 1.25
1.05 -18.549999 1.25
1.15 -18.549999 1.25
1.05 -18.450001 1.25
1.45 -18.75 1.25
1.55 -18.65 1.35
1.35 -18.549999 1.25
1.35 -18.450001 1.35
1.45 -18.450001 1.25
0.050000001 -18.049999 1.15
0.34999999 -17.85 0.85000002
0.34999999 -17.85 0.94999999
0.050000001 -17.75 0.85000002
0.050000001 -17.65 0.85000002
0.15000001 -17.65 0.85000002
0.050000001 -17.65 0.94999999
0.15000001 -17.65 0.94999999
0.25 -17.75 0.85000002
0.34999999 -17.75 0.85000002
0.25 -17.75 0.94999999
0.34999999 -17.75 0.94999999
0.25 -17.65 0.94999999
0.34999999 -17.65 0.94999999
0.050000001 -17.85 1.05
0.050000001 -17.950001 1.15
0.15000001 -17.950001 1.15
0.15000001 -17.85 1.15
0.25 -17.950001 1.15
0.050000001 -17.75 1.05
0.15000001 -17.65 1.05
0.25 -17.65 1.05
0.34999999 -17.65 1.05
0.25 -17.75 1.15
0.25 -17.65 1.15
0.34999999 -17.65 1.15
0.44999999 -17.85 0.85000002
0.55000001 -17.85 0.94999999
0.44999999 -17.75 0.85000002
0.44999999 -17.65 0.85000002
0.44999999 -17.75 0.94999999
0.55000001 -17.75 0.94999999
0.44999999 -17.65 0.94999999
0.55000001 -17.85 1.05
0.64999998 -17.85 1.05
0.75 -17.85 1.15
0.44999999 -17.75 1.05
0.55000001 -17.75 1.05
0.44999999 -17.65 1.05
0.55000001 -17.65 1.15
0.75 -17.75 1.05
0.75 -17.75 1.15
0.64999998 -17.65 1.15
0.75 -17.65 1.15
0.050000001 -18.25 1.35
0.050000001 -18.15 1.25
0.050000001 -18.049999 1.25
0.050000001 -18.049999 1.35
0.050000001 -18.25 1.55
0.15000001 -18.25 1.55
0.34999999 -18.25 1.55
0.15000001 -18.15 1.55
0.55000001 -18.35 1.45
0.050000001 -17.85 1.35
0.15000001 -17.65 1.25
0.050000001 -17.75 1.35
0.15000001 -17.65 1.35
0.34999999 -17.75 1.25
0.34999999 -17.75 1.35
0.050000001 -17.85 1.55
0.25 -17.85 1.55
0.050000001 -17.65 1.55
0.15000001 -17.65 1.55
0.25 -17.75 1.45
0.25 -17.65 1.45
0.34999999 -17.65 1.45
0.25 -17.65 1.55
0.34999999 -17.65 1.55
0.55000001 -17.75 1.25
0.55000001 -17.75 1.35
0.44999999 -17.65 1.35
0.55000001 -17.65 1.35
0.64999998 -17.75 1.25
0.75 -17.75 1.25
0.64999998 -17.65 1.25
0.75 -17.65 1.25
0.64999998 -17.75 1.35
0.75 -17.75 1.35
0.64999998 -17.65 1.35
0.55000001 -17.65 1.45
0.64999998 -17.65 1.45
0.85000002 -18.049999 0.85000002
0.94999999 -18.049999 0.85000002
1.55 -18.25 0.85000002
1.45 -18.35 0.94999999
1.55 -18.35 0.94999999
1.45 -18.25 0.94999999
1.35 -18.15 0.94999999
1.45 -18.15 0.94999999
1.55 -18.049999 0.94999999
1.35 -18.049999 1.15
0.85000002 -17.950001 0.85000002
0.94999999 -17.950001 0.85000002
1.05 -17.950001 0.85000002
1.15 -17.950001 0.85000002
1.15 -17.85 0.85000002
0.85000002 -17.75 0.94999999
0.85000002 -17.65 0.94999999
0.94999999 -17.65 0.94999999
1.15 -17.65 0.94999999
0.85000002 -17.85 1.15
1.05 -17.85 1.05
1.15 -17.85 1.05
0.85000002 -17.65 1.05
0.85000002 -17.75 1.15
0.94999999 -17.75 1.15
1.15 -17.75 1.05
1.15 -17.65 1.05
1.05 -17.75 1.15
1.15 -17.75 1.15
1.15 -17.65 1.15
1.25 -17.85 0.85000002
1.35 -17.85 0.85000002
1.25 -17.75 0.85000002
1.35 -17.75 0.85000002
1.25 -17.75 0.94999999
1.35 -17.65 0.94999999
1.45 -17.75 0.85000002
1.45 -17.65 0.85000002
1.55 -17.65 0.85000002
1.35 -17.950001 1.05
1.45 -17.85 1.05
1.45 -17.950001 1.15
1.55 -17.85 1.15
1.35 -17.65 1.05
1.25 -17.75 1.15
1.35 -17.75 1.15
1.25 -17.65 1.15
1.45 -18.049999 1.25
1.55 -18.049999 1.25
1.45 -18.15 1.35
1.55 -18.049999 1.35
0.94999999 -17.85 1.25
1.15 -17.85 1.25
0.85000002 -17.75 1.25
0.94999999 -17.75 1.25
0.85000002 -17.65 1.25
0.94999999 -17.65 1.25
0.85000002 -17.75 1.35
1.05 -17.75 1.25
1.15 -17.75 1.25
1.05 -17.65 1.25
1.15 -17.65 1.25
0.85000002 -17.65 1.45
1.15 -17.65 1.45
1.25 -17.75 1.25
1.35 -17.75 1.25
1.25 -17.65 1.25
1.35 -17.65 1.25
1.35 -17.75 1.35
1.25 -17.65 1.35
1.45 -17.65 1.35
1.55 -17.65 1.35
1.35 -17.75 1.45
1.45 -17.65 1.45
2.3499999 -19.15 0.25
2.3499999 -19.15 0.34999999
2.3499999 -19.15 0.44999999
2.3499999 -19.15 0.55000001
2.3499999 -19.15 0.64999998
2.3499999 -19.15 0.75
2.6500001 -19.049999 0.050000001
2.75 -19.049999 0.050000001
2.45 -19.15 0.25
2.45 -19.15 0.34999999
2.45 -19.15 0.55000001
2.45 -19.15 0.64999998
2.45 -19.15 0.75
1.65 -18.049999 0.64999998
1.75 -18.049999 0.64999998
1.95 -18.049999 0.75
1.65 -17.950001 0.55000001
1.75 -17.950001 0.55000001
1.65 -17.85 0.55000001
1.75 -17.85 0.55000001
1.85 -17.950001 0.55000001
1.85 -17.85 0.55000001
1.95 -17.85 0.55000001
1.85 -17.75 0.44999999
1.95 -17.75 0.44999999
1.95 -17.75 0.55000001
1.75 -17.950001 0.64999998
1.65 -17.85 0.64999998
1.75 -17.85 0.64999998
1.65 -17.950001 0.75
1.75 -17.950001 0.75
1.65 -17.85 0.75
1.75 -17.85 0.75
1.85 -17.950001 0.64999998
1.95 -17.950001 0.64999998
1.95 -17.85 0.64999998
1.95 -17.950001 0.75
1.65 -17.75 0.64999998
1.75 -17.75 0.64999998
1.65 -17.75 0.75
1.75 -17.75 0.75
1.75 -17.65 0.75
1.85 -17.75 0.64999998
1.95 -17.75 0.64999998
1.85 -17.65 0.64999998
1.95 -17.65 0.64999998
1.85 -17.65 0.75
1.95 -17.65 0.75
2.05 -17.85 0.55000001
2.1500001 -17.85 0.55000001
2.05 -17.75 0.44999999
2.05 -17.75 0.55000001
2.25 -17.75 0.55000001
2.3499999 -17.75 0.55000001
2.05 -17.950001 0.64999998
2.05 -17.85 0.64999998
2.1500001 -17.85 0.64999998
2.1500001 -17.950001 0.75
2.25 -17.85 0.64999998
2.25 -17.950001 0.75
2.05 -17.65 0.64999998
2.25 -17.75 0.64999998
2.3499999 -17.75 0.64999998
3.1500001 -18.049999 0.75
2.45 -17.75 0.55000001
2.45 -17.65 0.55000001
2.55 -17.65 0.55000001
2.6500001 -17.65 0.55000001
2.55 -17.85 0.75
2.6500001 -17.85 0.75
2.45 -17.75 0.64999998
2.45 -17.75 0.75
2.6500001 -17.75 0.64999998
2.6500001 -17.75 0.75
2.75 -17.75 0.75
2.8499999 -17.85 0.75
2.95 -17.85 0.75
3.1500001 -17.950001 0.75
3.05 -17.85 0.75
3.1500001 -17.85 0.75
2.8499999 -17.75 0.75
2.95 -17.65 0.75
3.1500001 -17.75 0.75
3.1500001 -17.65 0.75
1.65 -18.85 0.94999999
1.65 -19.049999 1.05
1.75 -19.049999 1.05
1.65 -19.049999 1.15
1.95 -19.049999 1.15
1.75 -18.950001 1.05
1.65 -18.950001 1.15
1.75 -18.950001 1.15
1.65 -18.85 1.15
1.75 -18.85 1.15
1.85 -18.85 1.05
1.95 -18.85 1.05
1.95 -18.85 1.15
2.3499999 -19.15 0.94999999
2.05 -19.15 1.15
2.05 -19.049999 1.15
2.05 -18.85 1.05
1.75 -18.75 0.94999999
1.95 -18.65 0.94999999
1.95 -18.549999 0.94999999
1.75 -18.75 1.15
1.95 -18.75 1.05
1.75 -18.450001 1.15
2.05 -18.549999 0.94999999
2.1500001 -18.549999 0.94999999
2.1500001 -18.450001 0.94999999
2.25 -18.549999 0.94999999
2.25 -18.450001 0.94999999
2.05 -18.75 1.05
2.1500001 -18.75 1.05
2.1500001 -18.65 1.05
2.25 -18.75 1.05
2.25 -18.65 1.05
2.3499999 -18.549999 1.05
1.85 -19.15 1.35
1.95 -19.049999 1.35
1.85 -18.950001 1.35
1.95 -18.950001 1.35
1.95 -18.85 1.35
1.85 -18.85 1.45
2.25 -19.15 1.35
2.05 -18.950001 1.35
2.1500001 -19.15 1.45
2.1500001 -19.049999 1.45
2.25 -18.950001 1.45
2.3499999 -18.85 1.45
1.75 -18.75 1.25
1.75 -18.75 1.35
1.65 -18.549999 1.45
1.85 -18.450001 1.45
2.25 -18.65 1.25
2.3499999 -18.549999 1.25
2.25 -18.450001 1.25
2.3499999 -18.450001 1.25
2.1500001 -18.75 1.45
2.3499999 -18.65 1.45
2.25 -18.450001 1.45
2.75 -19.15 1.05
2.75 -19.049999 1.05
2.75 -18.950001 1.05
2.75 -18.85 1.05
2.95 -19.15 0.94999999
2.95 -19.049999 0.94999999
3.05 -19.15 0.94999999
3.1500001 -19.15 0.94999999
3.05 -19.049999 0.94999999
2.95 -18.950001 0.94999999
2.95 -18.85 0.94999999
3.05 -18.950001 0.94999999
3.1500001 -18.85 0.94999999
2.95 -19.15 1.05
3.1500001 -19.15 1.05
3.05 -19.049999 1.05
3.05 -19.15 1.15
3.1500001 -19.15 1.15
3.1500001 -19.049999 1.15
2.8499999 -18.950001 1.05
2.8499999 -18.85 1.05
2.95 -18.85 1.05
3.05 -18.950001 1.05
3.05 -18.85 1.05
2.55 -18.450001 0.94999999
2.6500001 -18.549999 0.94999999
2.75 -18.549999 0.94999999
2.6500001 -18.450001 0.94999999
2.45 -18.65 1.15
2.6500001 -18.75 1.05
2.75 -18.75 1.05
2.6500001 -18.65 1.05
2.75 -18.65 1.05
2.45 -18.549999 1.05
2.55 -18.450001 1.05
2.6500001 -18.549999 1.05
2.75 -18.549999 1.05
2.6500001 -18.450001 1.05
2.95 -18.75 0.94999999
2.8499999 -18.65 0.94999999
2.95 -18.65 0.94999999
3.05 -18.75 0.94999999
3.1500001 -18.75 0.94999999
3.05 -18.65 0.94999999
3.1500001 -18.65 0.94999999
2.8499999 -18.549999 0.94999999
2.95 -18.549999 0.94999999
2.8499999 -18.450001 0.94999999
2.95 -18.450001 0.94999999
3.05 -18.549999 0.94999999
3.1500001 -18.549999 0.94999999
3.1500001 -18.450001 0.94999999
2.8499999 -18.75 1.05
2.95 -18.75 1.05
2.8499999 -18.65 1.05
2.95 -18.65 1.05
3.05 -18.75 1.05
3.05 -18.65 1.05
2.95 -18.450001 1.05
3.05 -18.450001 1.05
2.8499999 -19.049999 1.45
2.95 -19.049999 1.45
3.1500001 -19.15 1.45
3.05 -19.049999 1.45
3.1500001 -19.049999 1.45
2.45 -18.549999 1.25
2.55 -18.75 1.45
2.45 -18.65 1.55
2.6500001 -18.75 1.45
1.65 -18.25 0.85000002
1.65 -18.35 0.94999999
1.65 -18.25 0.94999999
1.75 -18.25 0.94999999
1.85 -18.25 0.94999999
1.65 -18.15 0.85000002
1.75 -18.15 0.85000002
1.65 -18.049999 0.85000002
1.65 -18.15 0.94999999
1.75 -18.15 0.94999999
1.65 -18.049999 0.94999999
1.85 -18.049999 0.85000002
1.85 -18.15 0.94999999
1.95 -18.049999 0.94999999
1.75 -18.25 1.05
1.95 -18.049999 1.05
2.25 -18.35 0.94999999
2.3499999 -18.25 0.94999999
2.05 -18.049999 0.94999999
2.3499999 -18.049999 0.85000002
2.25 -18.049999 0.94999999
2.3499999 -18.049999 0.94999999
2.25 -18.25 1.05
2.3499999 -18.25 1.05
2.1500001 -18.15 1.05
2.05 -18.049999 1.05
2.1500001 -18.049999 1.05
2.25 -18.15 1.05
2.3499999 -18.15 1.05
2.3499999 -18.049999 1.05
1.65 -17.950001 0.85000002
1.65 -17.950001 0.94999999
1.75 -17.950001 0.94999999
1.75 -17.85 0.94999999
1.85 -17.85 0.85000002
1.85 -17.85 0.94999999
1.95 -17.85 0.94999999
1.65 -17.65 0.85000002
1.75 -17.65 0.85000002
1.65 -17.75 0.94999999
1.75 -17.75 0.94999999
1.75 -17.65 0.94999999
1.85 -17.75 0.85000002
1.95 -17.65 0.85000002
1.85 -17.75 0.94999999
1.95 -17.75 0.94999999
1.95 -17.950001 1.05
1.65 -17.75 1.05
1.65 -17.65 1.05
1.95 -17.75 1.05
2.05 -17.950001 0.94999999
2.05 -17.85 0.94999999
2.1500001 -17.85 0.94999999
2.3499999 -17.950001 0.94999999
2.25 -17.85 0.94999999
2.3499999 -17.85 0.94999999
2.05 -17.75 0.85000002
2.05 -17.65 0.85000002
2.1500001 -17.65 0.85000002
2.05 -17.75 0.94999999
2.1500001 -17.75 0.94999999
2.1500001 -17.65 0.94999999
2.25 -17.65 0.85000002
2.3499999 -17.65 0.85000002
2.25 -17.75 0.94999999
2.3499999 -17.75 0.94999999
2.25 -17.65 0.94999999
2.05 -17.950001 1.05
2.1500001 -17.85 1.05
2.25 -17.85 1.15
2.3499999 -17.85 1.15
2.1500001 -17.65 1.05
2.25 -17.65 1.05
2.25 -17.75 1.15
1.65 -18.35 1.25
1.65 -18.25 1.35
1.75 -18.049999 1.35
1.85 -18.15 1.25
1.95 -18.15 1.25
1.85 -18.049999 1.25
1.65 -18.25 1.55
1.75 -18.25 1.55
1.95 -18.35 1.45
1.95 -18.15 1.45
2.05 -18.25 1.25
2.1500001 -18.25 1.25
2.1500001 -18.049999 1.25
2.05 -18.15 1.35
2.05 -18.049999 1.35
2.25 -18.049999 1.35
2.3499999 -18.049999 1.35
2.1500001 -18.35 1.55
2.25 -18.35 1.45
1.75 -17.950001 1.25
1.75 -17.85 1.25
1.85 -17.85 1.25
1.85 -17.950001 1.35
1.95 -17.950001 1.35
1.65 -17.65 1.35
1.75 -17.65 1.35
1.95 -17.75 1.25
1.65 -17.950001 1.45
2.05 -17.950001 1.35
2.25 -17.85 1.35
2.3499999 -17.85 1.35
2.05 -17.75 1.35
2.05 -17.85 1.55
2.1500001 -17.85 1.55
2.25 -17.75 1.55
2.55 -18.25 0.94999999
2.6500001 -18.25 0.94999999
2.75 -18.25 0.94999999
2.55 -18.15 0.94999999
2.45 -18.049999 0.94999999
2.55 -18.049999 0.94999999
2.6500001 -18.15 0.85000002
2.6500001 -18.049999 0.85000002
2.6500001 -18.15 0.94999999
2.75 -18.15 0.94999999
2.6500001 -18.049999 0.94999999
2.75 -18.049999 0.94999999
2.45 -18.35 1.05
2.55 -18.35 1.05
2.45 -18.25 1.05
2.45 -18.049999 1.05
2.55 -18.049999 1.15
2.8499999 -18.35 0.94999999
2.95 -18.35 0.94999999
2.8499999 -18.25 0.94999999
2.95 -18.25 0.94999999
3.1500001 -18.35 0.85000002
3.05 -18.35 0.94999999
3.1500001 -18.35 0.94999999
3.05 -18.25 0.94999999
3.1500001 -18.25 0.94999999
2.95 -18.15 0.85000002
2.95 -18.049999 0.85000002
2.8499999 -18.15 0.94999999
2.95 -18.15 0.94999999
2.8499999 -18.049999 0.94999999
2.95 -18.049999 0.94999999
3.1500001 -18.15 0.85000002
3.1500001 -18.049999 0.85000002
3.05 -18.15 0.94999999
3.05 -18.049999 0.94999999
2.8499999 -18.35 1.05
2.95 -18.35 1.05
2.95 -18.15 1.05
3.05 -18.15 1.05
3.05 -18.049999 1.05
3.1500001 -18.049999 1.05
2.45 -17.950001 0.94999999
2.55 -17.950001 0.94999999
2.45 -17.85 0.94999999
2.55 -17.85 0.94999999
2.75 -17.85 0.85000002
2.6500001 -17.950001 0.94999999
2.75 -17.950001 0.94999999
2.6500001 -17.85 0.94999999
2.75 -17.85 0.94999999
2.45 -17.65 0.85000002
2.55 -17.65 0.85000002
2.45 -17.75 0.94999999
2.55 -17.75 0.94999999
2.75 -17.65 0.85000002
2.6500001 -17.950001 1.15
2.45 -17.75 1.15
2.55 -17.75 1.15
2.8499999 -17.950001 0.85000002
2.8499999 -17.85 0.85000002
2.95 -17.85 0.85000002
2.8499999 -17.950001 0.94999999
2.95 -17.950001 0.94999999
2.8499999 -17.85 0.94999999
3.05 -17.950001 0.85000002
3.1500001 -17.950001 0.85000002
3.1500001 -17.85 0.85000002
3.05 -17.950001 0.94999999
3.05 -17.85 0.94999999
3.1500001 -17.85 0.94999999
2.8499999 -17.75 0.94999999
2.95 -17.65 0.94999999
3.05 -17.75 0.94999999
3.1500001 -17.75 0.94999999
3.1500001 -17.65 0.94999999
2.45 -18.049999 1.35
0.050000001 -17.549999 0.75
0.75 -16.450001 0.25
0.75 -16.549999 0.34999999
0.55000001 -16.450001 0.75
0.34999999 -16.35 0.75
0.44999999 -16.35 0.75
0.94999999 -16.549999 0.15000001
0.94999999 -16.450001 0.15000001
0.94999999 -16.549999 0.25
0.94999999 -16.450001 0.25
0.94999999 -16.549999 0.34999999
0.94999999 -16.450001 0.34999999
1.05 -16.549999 0.25
1.05 -16.450001 0.25
1.05 -16.549999 0.34999999
1.05 -16.450001 0.34999999
1.25 -16.35 0.050000001
0.94999999 -16.549999 0.44999999
0.94999999 -16.450001 0.44999999
0.94999999 -16.549999 0.55000001
0.94999999 -16.450001 0.55000001
1.05 -16.450001 0.44999999
1.05 -16.549999 0.55000001
1.05 -16.450001 0.55000001
0.94999999 -16.549999 0.64999998
0.94999999 -16.450001 0.64999998
1.05 -16.450001 0.64999998
1.05 -16.450001 0.75
0.050000001 -17.450001 0.85000002
0.15000001 -17.549999 0.94999999
0.25 -17.549999 0.94999999
0.34999999 -17.450001 0.94999999
0.34999999 -17.25 0.94999999
0.050000001 -17.549999 1.05
0.15000001 -17.549999 1.05
0.15000001 -17.450001 1.05
0.15000001 -17.549999 1.15
0.25 -17.549999 1.05
0.34999999 -17.549999 1.05
0.25 -17.549999 1.15
0.34999999 -17.35 1.15
0.44999999 -17.549999 0.94999999
0.55000001 -17.549999 0.94999999
0.44999999 -17.450001 0.94999999
0.55000001 -17.450001 0.94999999
0.44999999 -17.35 0.94999999
0.55000001 -17.35 0.94999999
0.44999999 -17.549999 1.05
0.55000001 -17.450001 1.05
0.44999999 -17.549999 1.15
0.55000001 -17.549999 1.15
0.64999998 -17.450001 1.05
0.64999998 -17.549999 1.15
0.75 -17.549999 1.15
0.64999998 -17.450001 1.15
0.75 -17.450001 1.15
0.55000001 -17.35 1.05
0.55000001 -17.35 1.15
0.64999998 -17.35 1.05
0.75 -17.35 1.05
0.75 -17.25 1.05
0.64999998 -17.25 1.15
0.15000001 -17.15 0.94999999
0.050000001 -17.049999 0.94999999
0.15000001 -17.049999 0.94999999
0.050000001 -16.950001 0.94999999
0.15000001 -16.950001 0.94999999
0.25 -16.950001 0.85000002
0.25 -16.950001 0.94999999
0.34999999 -16.950001 0.94999999
0.44999999 -17.049999 0.85000002
0.55000001 -17.049999 0.94999999
0.64999998 -17.15 0.94999999
0.75 -17.15 0.94999999
0.75 -17.049999 0.94999999
0.55000001 -16.950001 0.85000002
0.44999999 -16.950001 0.94999999
0.55000001 -16.950001 0.94999999
0.64999998 -16.950001 0.94999999
0.64999998 -16.85 0.94999999
0.44999999 -17.15 1.15
0.050000001 -17.549999 1.25
0.15000001 -17.549999 1.25
0.15000001 -17.450001 1.25
0.050000001 -17.450001 1.35
0.34999999 -17.450001 1.25
0.25 -17.549999 1.35
0.34999999 -17.450001 1.35
0.15000001 -17.35 1.35
0.050000001 -17.25 1.35
0.15000001 -17.25 1.35
0.34999999 -17.35 1.25
0.25 -17.25 1.25
0.34999999 -17.25 1.25
0.25 -17.35 1.35
0.34999999 -17.35 1.35
0.34999999 -17.549999 1.45
0.050000001 -17.25 1.45
0.15000001 -17.25 1.55
0.44999999 -17.450001 1.25
0.55000001 -17.450001 1.25
0.55000001 -17.450001 1.35
0.64999998 -17.549999 1.35
0.75 -17.549999 1.35
0.44999999 -17.35 1.25
0.44999999 -17.35 1.35
0.55000001 -17.35 1.35
0.55000001 -17.25 1.35
0.64999998 -17.35 1.35
0.75 -17.35 1.35
0.64999998 -17.25 1.35
0.75 -17.25 1.35
0.44999999 -17.549999 1.45
0.55000001 -17.549999 1.45
0.44999999 -17.450001 1.55
0.55000001 -17.450001 1.55
0.64999998 -17.549999 1.45
0.64999998 -17.450001 1.45
0.75 -17.450001 1.45
0.64999998 -17.549999 1.55
0.75 -17.549999 1.55
0.64999998 -17.450001 1.55
0.15000001 -17.049999 1.25
0.050000001 -17.15 1.35
0.25 -17.15 1.25
0.25 -17.15 1.35
0.050000001 -16.85 1.35
0.050000001 -17.15 1.45
0.15000001 -17.049999 1.45
0.25 -17.15 1.45
0.25 -17.15 1.55
0.34999999 -17.049999 1.55
0.050000001 -16.950001 1.45
0.15000001 -16.85 1.55
0.34999999 -16.85 1.55
0.64999998 -17.15 1.25
0.75 -17.15 1.35
0.44999999 -17.049999 1.55
0.55000001 -17.049999 1.55
0.64999998 -16.950001 1.55
0.85000002 -17.450001 0.94999999
0.94999999 -17.450001 0.94999999
1.05 -17.549999 0.94999999
0.94999999 -17.35 0.94999999
1.05 -17.35 0.94999999
1.15 -17.35 0.94999999
1.05 -17.25 0.94999999
0.94999999 -17.549999 1.05
0.85000002 -17.450001 1.05
0.94999999 -17.450001 1.05
0.85000002 -17.549999 1.15
0.94999999 -17.549999 1.15
0.85000002 -17.450001 1.15
0.94999999 -17.450001 1.15
1.15 -17.549999 1.05
1.05 -17.450001 1.05
1.15 -17.450001 1.05
1.05 -17.549999 1.15
1.05 -17.450001 1.15
1.15 -17.450001 1.15
0.94999999 -17.35 1.05
0.85000002 -17.25 1.05
0.85000002 -17.35 1.15
0.94999999 -17.35 1.15
1.05 -17.35 1.05
1.05 -17.25 1.05
1.15 -17.25 1.05
1.05 -17.35 1.15
1.25 -17.549999 0.94999999
1.35 -17.549999 0.94999999
1.25 -17.450001 0.94999999
1.35 -17.450001 0.94999999
1.55 -17.549999 0.94999999
1.55 -17.450001 0.94999999
1.35 -17.25 0.85000002
1.25 -17.35 0.94999999
1.25 -17.25 0.94999999
1.35 -17.25 0.94999999
1.45 -17.35 0.94999999
1.45 -17.450001 1.05
1.45 -17.450001 1.15
1.55 -17.450001 1.15
1.25 -17.35 1.05
1.35 -17.25 1.05
1.45 -17.25 1.05
1.55 -17.35 1.15
0.85000002 -17.15 0.94999999
0.85000002 -17.049999 0.94999999
1.15 -17.15 0.85000002
1.15 -17.15 0.94999999
0.94999999 -16.950001 0.94999999
0.94999999 -16.85 0.94999999
0.85000002 -17.15 1.05
0.94999999 -17.15 1.05
0.94999999 -17.049999 1.05
1.05 -17.15 1.05
1.15 -17.049999 1.05
1.15 -17.15 1.15
1.05 -17.049999 1.15
1.15 -16.950001 1.15
1.15 -16.85 1.15
1.25 -17.15 0.94999999
1.35 -17.15 0.94999999
1.25 -17.049999 0.94999999
1.35 -17.049999 0.94999999
1.45 -17.15 0.85000002
1.45 -17.15 0.94999999
1.45 -17.049999 0.94999999
1.55 -17.049999 0.94999999
1.35 -16.950001 0.94999999
1.35 -16.85 0.94999999
1.25 -17.15 1.05
1.25 -17.15 1.15
1.35 -17.15 1.15
1.45 -17.15 1.15
1.55 -17.15 1.15
1.45 -17.049999 1.15
1.55 -17.049999 1.15
1.25 -16.950001 1.15
1.35 -16.85 1.15
1.45 -16.950001 1.05
0.85000002 -17.450001 1.35
0.94999999 -17.450001 1.35
1.05 -17.549999 1.25
1.15 -17.549999 1.25
1.05 -17.549999 1.35
1.15 -17.549999 1.35
0.85000002 -17.25 1.35
0.94999999 -17.25 1.35
1.15 -17.35 1.25
0.85000002 -17.450001 1.45
0.94999999 -17.450001 1.45
0.85000002 -17.549999 1.55
0.94999999 -17.549999 1.55
1.15 -17.450001 1.45
1.15 -17.450001 1.55
0.94999999 -17.35 1.55
1.05 -17.35 1.45
1.15 -17.35 1.45
1.05 -17.35 1.55
1.15 -17.35 1.55
1.05 -17.25 1.55
1.15 -17.25 1.55
1.25 -17.549999 1.25
1.35 -17.549999 1.25
1.25 -17.549999 1.35
1.45 -17.549999 1.25
1.55 -17.549999 1.25
1.45 -17.450001 1.35
1.25 -17.35 1.25
1.35 -17.35 1.25
1.25 -17.25 1.25
1.35 -17.25 1.25
1.55 -17.35 1.35
1.25 -17.450001 1.45
1.25 -17.450001 1.55
1.35 -17.450001 1.55
1.25 -17.35 1.45
1.35 -17.35 1.45
1.25 -17.35 1.55
1.35 -17.35 1.55
1.25 -17.25 1.55
1.35 -17.25 1.55
1.45 -17.35 1.45
1.55 -17.25 1.45
1.45 -17.35 1.55
1.55 -17.35 1.55
1.45 -17.25 1.55
0.85000002 -17.15 1.35
0.94999999 -17.15 1.35
1.05 -17.049999 1.35
0.94999999 -17.15 1.45
1.05 -17.15 1.45
1.15 -17.049999 1.45
1.15 -16.950001 1.45
1.25 -17.049999 1.45
1.35 -17.15 1.55
1.45 -17.15 1.55
1.55 -17.049999 1.55
1.35 -16.85 1.45
0.15000001 -16.75 0.85000002
0.050000001 -16.65 0.85000002
0.25 -16.75 0.85000002
0.25 -16.65 0.85000002
0.34999999 -16.65 0.85000002
0.15000001 -16.549999 0.85000002
0.050000001 -16.450001 0.85000002
0.15000001 -16.450001 0.85000002
0.25 -16.549999 0.85000002
0.34999999 -16.65 1.05
0.75 -16.75 0.94999999
0.75 -16.65 0.94999999
0.44999999 -16.549999 0.85000002
0.64999998 -16.450001 0.94999999
0.44999999 -16.65 1.05
0.44999999 -16.549999 1.05
0.55000001 -16.549999 1.05
0.050000001 -16.35 0.85000002
0.15000001 -16.25 0.85000002
0.34999999 -16.35 0.85000002
0.25 -16.25 0.85000002
0.34999999 -16.35 0.94999999
0.34999999 -16.25 0.94999999
0.050000001 -16.15 0.85000002
0.15000001 -16.15 0.85000002
0.050000001 -16.049999 0.85000002
0.15000001 -16.049999 0.85000002
0.25 -16.15 0.85000002
0.25 -16.049999 0.85000002
0.55000001 -16.35 0.94999999
0.44999999 -16.25 0.94999999
0.64999998 -16.35 0.94999999
0.64999998 -16.35 1.05
0.75 -16.35 1.05
0.050000001 -16.049999 1.35
0.050000001 -16.15 1.45
0.15000001 -16.15 1.45
0.050000001 -16.049999 1.55
0.15000001 -16.049999 1.55
0.25 -16.049999 1.45
0.25 -16.15 1.55
0.34999999 -16.15 1.55
1.05 -16.75 0.94999999
0.85000002 -16.450001 0.85000002
0.85000002 -16.75 1.05
0.85000002 -16.65 1.05
0.94999999 -16.65 1.05
1.15 -16.65 1.05
0.94999999 -16.549999 1.05
1.05 -16.549999 1.05
1.35 -16.75 0.94999999
1.25 -16.65 0.94999999
1.45 -16.75 1.05
1.45 -16.65 1.05
1.45 -16.549999 1.05
1.45 -16.450001 1.05
0.85000002 -16.049999 1.15
0.94999999 -16.049999 1.15
1.15 -16.049999 1.05
1.05 -16.049999 1.15
1.35 -16.25 0.94999999
1.55 -16.35 0.94999999
1.55 -16.25 0.94999999
1.55 -16.15 0.94999999
1.45 -16.049999 0.94999999
1.25 -16.25 1.15
1.35 -16.25 1.15
1.45 -16.35 1.05
1.45 -16.25 1.15
1.35 -16.15 1.05
1.35 -16.049999 1.05
1.25 -16.15 1.15
1.55 -16.049999 1.05
1.55 -16.450001 1.25
1.95 -17.549999 0.64999998
1.95 -17.549999 0.75
2.1500001 -17.549999 0.64999998
2.05 -17.549999 0.75
2.1500001 -17.549999 0.75
2.1500001 -17.450001 0.75
2.25 -17.549999 0.75
2.25 -17.450001 0.75
2.25 -17.35 0.75
2.3499999 -17.35 0.75
2.3499999 -17.25 0.75
2.45 -17.450001 0.75
2.55 -17.450001 0.75
2.6500001 -17.450001 0.75
2.75 -17.450001 0.75
2.45 -17.35 0.75
2.55 -17.35 0.75
2.95 -17.549999 0.75
2.8499999 -17.450001 0.75
2.95 -17.450001 0.75
3.1500001 -17.549999 0.64999998
3.1500001 -17.450001 0.64999998
3.05 -17.549999 0.75
3.1500001 -17.549999 0.75
3.05 -17.450001 0.75
3.1500001 -17.450001 0.75
3.05 -17.35 0.75
3.1500001 -17.35 0.75
3.05 -17.25 0.75
3.1500001 -17.25 0.75
3.1500001 -17.15 0.64999998
3.05 -17.15 0.75
3.1500001 -17.15 0.75
3.1500001 -17.049999 0.75
3.1500001 -16.950001 0.75
1.75 -16.049999 0.75
1.85 -16.15 0.75
3.05 -16.75 0.75
2.95 -16.450001 0.64999998
2.8499999 -16.549999 0.75
2.95 -16.549999 0.75
2.8499999 -16.450001 0.75
2.95 -16.450001 0.75
3.05 -16.450001 0.64999998
3.1500001 -16.450001 0.64999998
3.1500001 -16.450001 0.75
2.55 -16.35 0.75
2.55 -16.25 0.75
2.45 -16.15 0.75
2.55 -16.15 0.75
2.45 -16.049999 0.75
2.55 -16.049999 0.75
2.6500001 -16.15 0.75
2.6500001 -16.049999 0.75
2.95 -16.35 0.75
3.05 -16.35 0.64999998
3.1500001 -16.35 0.64999998
3.05 -16.35 0.75
3.1500001 -16.35 0.75
3.1500001 -16.25 0.75
1.65 -17.549999 0.85000002
1.75 -17.549999 0.85000002
1.65 -17.549999 0.94999999
1.65 -17.450001 0.94999999
1.75 -17.450001 0.94999999
1.85 -17.549999 0.85000002
1.95 -17.549999 0.85000002
1.85 -17.450001 0.85000002
1.95 -17.450001 0.85000002
1.85 -17.549999 0.94999999
1.95 -17.549999 0.94999999
1.85 -17.450001 0.94999999
1.95 -17.450001 0.94999999
1.65 -17.35 0.85000002
1.65 -17.35 0.94999999
1.95 -17.35 0.94999999
1.75 -17.549999 1.15
1.85 -17.549999 1.05
1.95 -17.450001 1.05
1.85 -17.549999 1.15
1.95 -17.549999 1.15
1.95 -17.450001 1.15
1.65 -17.35 1.15
1.75 -17.25 1.15
1.85 -17.25 1.15
1.95 -17.25 1.15
2.1500001 -17.549999 0.85000002
2.1500001 -17.450001 0.85000002
2.05 -17.450001 0.94999999
2.25 -17.549999 0.85000002
2.3499999 -17.450001 0.85000002
2.05 -17.35 0.85000002
2.1500001 -17.35 0.85000002
2.1500001 -17.25 0.85000002
2.05 -17.35 0.94999999
2.1500001 -17.35 0.94999999
2.05 -17.25 0.94999999
2.1500001 -17.25 0.94999999
2.25 -17.35 0.85000002
2.3499999 -17.35 0.85000002
2.25 -17.25 0.85000002
2.3499999 -17.25 0.85000002
2.05 -17.450001 1.15
2.1500001 -17.450001 1.15
2.25 -17.450001 1.15
2.25 -17.35 1.15
1.75 -17.049999 0.94999999
1.95 -17.15 0.85000002
1.65 -16.950001 0.94999999
1.65 -16.85 0.94999999
1.75 -16.85 0.94999999
2.1500001 -17.15 0.94999999
2.3499999 -17.15 0.85000002
2.25 -17.15 0.94999999
2.3499999 -17.15 0.94999999
2.3499999 -17.049999 0.94999999
2.1500001 -16.950001 0.94999999
2.1500001 -16.85 0.94999999
2.3499999 -16.950001 0.94999999
1.65 -17.549999 1.35
1.75 -17.549999 1.35
1.85 -17.549999 1.35
1.95 -17.450001 1.35
1.75 -17.35 1.35
1.95 -17.450001 1.55
2.05 -17.450001 1.35
2.05 -17.35 1.55
1.65 -17.15 1.45
2.45 -17.549999 0.85000002
2.45 -17.450001 0.85000002
2.55 -17.450001 0.85000002
2.75 -17.549999 0.85000002
2.6500001 -17.450001 0.85000002
2.75 -17.450001 0.85000002
2.8499999 -17.450001 0.85000002
3.05 -17.549999 0.85000002
3.1500001 -17.549999 0.94999999
3.05 -17.450001 0.94999999
3.1500001 -17.450001 0.94999999
2.8499999 -17.35 0.85000002
2.95 -17.35 0.85000002
3.05 -17.35 0.85000002
3.1500001 -17.35 0.85000002
3.1500001 -17.35 0.94999999
2.45 -17.15 0.85000002
2.45 -17.049999 0.85000002
2.55 -17.049999 0.85000002
2.45 -17.049999 0.94999999
2.75 -17.049999 0.85000002
2.45 -16.950001 0.94999999
2.55 -16.950001 0.94999999
2.45 -16.85 0.94999999
2.55 -16.85 0.94999999
3.05 -16.950001 0.85000002
3.1500001 -16.950001 0.85000002
1.65 -16.75 0.94999999
1.75 -16.75 0.94999999
1.75 -16.65 0.94999999
1.95 -16.75 0.94999999
1.85 -16.65 0.94999999
1.95 -16.65 0.94999999
1.65 -16.549999 0.94999999
1.65 -16.450001 0.94999999
1.85 -16.549999 0.94999999
1.95 -16.549999 0.94999999
1.95 -16.450001 0.94999999
1.95 -16.75 1.05
1.95 -16.65 1.05
1.65 -16.549999 1.05
1.75 -16.450001 1.15
1.85 -16.549999 1.15
1.95 -16.549999 1.15
2.1500001 -16.75 0.94999999
2.05 -16.65 0.94999999
2.1500001 -16.65 0.94999999
2.3499999 -16.75 0.94999999
2.3499999 -16.65 0.94999999
2.05 -16.549999 0.94999999
2.1500001 -16.549999 0.94999999
2.05 -16.450001 0.94999999
2.1500001 -16.450001 0.94999999
2.3499999 -16.549999 0.94999999
1.65 -16.35 0.94999999
1.85 -16.25 0.85000002
1.95 -16.25 0.85000002
1.95 -16.35 0.94999999
1.95 -16.25 0.94999999
1.65 -16.049999 0.85000002
1.75 -16.15 0.94999999
1.65 -16.049999 0.94999999
1.95 -16.15 0.85000002
1.95 -16.049999 0.85000002
1.85 -16.049999 0.94999999
1.95 -16.049999 0.94999999
1.65 -16.049999 1.05
1.75 -16.049999 1.05
1.85 -16.15 1.05
1.95 -16.15 1.05
2.05 -16.35 0.85000002
2.1500001 -16.35 0.85000002
2.05 -16.25 0.85000002
2.1500001 -16.25 0.85000002
2.05 -16.35 0.94999999
2.05 -16.25 0.94999999
2.1500001 -16.25 0.94999999
2.25 -16.35 0.85000002
2.25 -16.25 0.85000002
2.25 -16.25 0.94999999
2.05 -16.15 0.85000002
2.05 -16.049999 0.85000002
2.1500001 -16.049999 0.85000002
2.05 -16.15 0.94999999
2.1500001 -16.15 0.94999999
2.25 -16.15 0.85000002
2.3499999 -16.15 0.85000002
2.3499999 -16.049999 0.85000002
1.65 -16.450001 1.25
2.55 -16.75 0.85000002
2.45 -16.65 0.85000002
2.55 -16.65 0.85000002
2.45 -16.75 0.94999999
2.55 -16.75 0.94999999
2.6500001 -16.75 0.85000002
2.75 -16.75 0.85000002
2.45 -16.549999 0.85000002
2.55 -16.549999 0.85000002
2.45 -16.450001 0.85000002
2.55 -16.450001 0.85000002
2.55 -16.549999 0.94999999
2.45 -16.450001 0.94999999
2.55 -16.450001 0.94999999
2.6500001 -16.549999 0.85000002
2.6500001 -16.450001 0.85000002
2.75 -16.450001 0.85000002
2.6500001 -16.549999 0.94999999
2.95 -16.65 0.85000002
3.1500001 -16.75 0.85000002
3.05 -16.65 0.85000002
3.1500001 -16.65 0.85000002
3.1500001 -16.65 0.94999999
2.8499999 -16.549999 0.85000002
2.95 -16.549999 0.85000002
2.8499999 -16.450001 0.85000002
2.95 -16.450001 0.85000002
2.8499999 -16.450001 0.94999999
2.95 -16.450001 0.94999999
3.05 -16.549999 0.85000002
3.1500001 -16.549999 0.85000002
3.05 -16.450001 0.85000002
3.05 -16.549999 0.94999999
3.05 -16.450001 0.94999999
2.45 -16.35 0.85000002
2.55 -16.35 0.85000002
2.45 -16.25 0.85000002
2.55 -16.25 0.85000002
2.45 -16.35 0.94999999
2.45 -16.15 0.85000002
2.55 -16.15 0.85000002
2.45 -16.049999 0.85000002
2.6500001 -16.049999 0.85000002
2.8499999 -16.35 0.85000002
2.8499999 -16.25 0.85000002
2.95 -16.35 0.94999999
3.05 -16.35 0.85000002
3.1500001 -16.25 0.85000002
2.8499999 -16.15 0.85000002
2.95 -16.15 0.85000002
3.05 -16.15 0.85000002
3.05 -16.049999 0.85000002
0.050000001 -18.450001 1.75
0.050000001 -18.25 1.65
0.15000001 -18.25 1.65
0.050000001 -18.35 1.75
0.15000001 -18.35 1.75
0.050000001 -18.25 1.75
0.15000001 -18.25 1.75
0.25 -18.25 1.65
0.34999999 -18.25 1.65
0.050000001 -18.15 1.75
0.25 -18.15 1.75
0.34999999 -17.75 1.75
0.15000001 -17.950001 1.85
0.15000001 -17.85 1.85
0.15000001 -17.65 1.85
0.55000001 -17.75 1.75
0.64999998 -17.65 1.75
0.15000001 -17.65 2.05
0.25 -17.65 2.05
0.34999999 -17.65 2.05
1.35 -17.75 1.65
1.25 -17.65 1.65
1.45 -17.65 1.75
1.55 -17.65 1.75
1.75 -18.450001 1.65
2.05 -18.65 1.65
1.85 -17.65 1.75
1.95 -17.65 1.75
2.1500001 -17.950001 1.75
2.25 -17.950001 1.75
2.3499999 -17.950001 1.75
2.05 -17.65 1.75
2.45 -17.65 1.65
2.55 -17.65 1.65
2.75 -17.65 1.65
0.64999998 -17.549999 1.75
0.75 -17.549999 1.75
0.75 -17.35 1.75
0.75 -16.950001 1.65
0.34999999 -17.549999 2.05
0.34999999 -17.450001 2.05
0.85000002 -17.549999 1.75
0.85000002 -17.450001 1.75
0.94999999 -17.450001 1.75
1.15 -17.549999 1.65
1.15 -17.450001 1.75
0.85000002 -17.35 1.75
0.94999999 -17.35 1.75
1.05 -17.35 1.75
1.15 -17.35 1.75
1.25 -17.450001 1.75
1.35 -17.450001 1.75
1.25 -17.35 1.75
1.35 -17.35 1.75
1.45 -17.35 1.75
1.45 -17.450001 1.85
1.55 -17.450001 1.85
0.85000002 -16.85 1.65
1.25 -17.049999 1.65
1.25 -17.049999 1.75
1.35 -17.049999 1.75
1.45 -16.950001 1.75
1.55 -16.85 1.75
0.050000001 -16.25 1.65
0.34999999 -16.25 1.75
0.15000001 -16.15 1.65
0.050000001 -16.049999 1.65
0.25 -16.15 1.65
0.34999999 -16.049999 1.65
0.050000001 -16.049999 1.85
0.44999999 -16.35 1.75
0.44999999 -16.049999 1.65
0.94999999 -16.75 1.65
1.15 -16.75 1.65
1.05 -16.65 1.65
1.15 -16.65 1.65
1.15 -16.549999 1.75
1.05 -16.049999 1.65
1.15 -16.049999 1.65
1.25 -16.15 1.65
0.85000002 -16.85 2.8499999
0.15000001 -16.549999 2.45
0.25 -16.450001 2.6500001
0.64999998 -16.15 2.95
0.75 -16.15 2.95
0.75 -16.049999 2.95
0.55000001 -16.15 3.05
1.05 -16.049999 2.75
1.25 -16.049999 2.75
1.35 -16.049999 2.75
1.55 -16.15 2.6500001
1.45 -16.15 2.75
1.55 -16.049999 2.75
1.25 -16.049999 2.95
1.65 -17.35 1.65
1.75 -17.25 1.65
1.65 -17.450001 1.85
2.05 -17.25 1.65
1.65 -17.15 1.75
1.85 -17.15 1.65
1.65 -16.950001 1.65
1.65 -16.950001 1.75
1.85 -16.950001 1.65
1.85 -16.85 1.65
2.05 -17.049999 1.65
2.1500001 -17.049999 1.65
2.45 -17.549999 1.65
2.75 -17.549999 1.65
2.45 -17.35 1.65
2.55 -17.35 1.65
1.65 -16.75 1.75
2.95 -16.049999 1.95
3.1500001 -16.049999 1.95
1.65 -16.35 2.6500001
1.65 -16.15 2.6500001
1.75 -16.15 2.6500001
1.85 -16.15 2.6500001
1.85 -16.049999 2.6500001
2.05 -16.15 2.6500001
2.1500001 -16.15 2.6500001
2.3499999 -16.049999 2.6500001
3.6500001 -19.15 0.75
3.75 -19.15 0.75
3.6500001 -19.049999 0.75
3.75 -19.049999 0.75
3.75 -18.950001 0.75
3.6500001 -18.85 0.75
3.75 -18.85 0.75
3.8499999 -18.950001 0.75
3.8499999 -18.85 0.75
3.55 -18.65 0.75
3.45 -18.549999 0.75
3.55 -18.549999 0.75
3.6500001 -18.75 0.64999998
3.75 -18.75 0.75
3.6500001 -18.65 0.75
3.75 -18.65 0.75
3.8499999 -18.75 0.75
3.8499999 -18.65 0.75
3.6500001 -18.549999 0.75
3.75 -18.549999 0.75
3.8499999 -18.450001 0.64999998
3.8499999 -18.549999 0.75
4.0500002 -18.450001 0.75
4.4499998 -18.450001 0.75
3.55 -18.25 0.75
3.25 -18.049999 0.75
3.3499999 -18.049999 0.75
3.55 -18.049999 0.64999998
3.45 -18.15 0.75
3.55 -18.15 0.75
3.3499999 -17.950001 0.75
3.25 -17.75 0.75
3.25 -17.65 0.75
4.4499998 -17.65 0.34999999
4.1500001 -18.35 0.64999998
4.25 -18.35 0.64999998
4.3499999 -18.35 0.64999998
4.25 -18.25 0.64999998
4.3499999 -18.25 0.64999998
4.5500002 -18.15 0.55000001
4.4499998 -18.25 0.64999998
4.4499998 -18.35 0.75
4.5500002 -18.35 0.75
4.5500002 -18.25 0.75
4.6500001 -18.25 0.75
4.75 -18.25 0.75
4.6500001 -18.15 0.75
4.6500001 -18.049999 0.75
4.75 -18.049999 0.75
3.3499999 -19.049999 0.94999999
3.55 -19.15 0.85000002
3.55 -19.049999 0.85000002
3.45 -19.15 0.94999999
3.55 -19.15 0.94999999
3.45 -19.049999 0.94999999
3.55 -19.049999 0.94999999
3.3499999 -18.950001 0.94999999
3.25 -18.85 0.94999999
3.3499999 -18.85 0.94999999
3.45 -18.950001 0.85000002
3.55 -18.950001 0.85000002
3.45 -18.85 0.85000002
3.45 -18.950001 0.94999999
3.55 -18.950001 0.94999999
3.45 -18.85 0.94999999
3.25 -19.15 1.05
3.3499999 -19.15 1.05
3.6500001 -19.15 0.85000002
3.75 -19.15 0.85000002
3.6500001 -19.049999 0.85000002
3.75 -19.15 0.94999999
3.8499999 -19.15 0.85000002
3.8499999 -19.049999 0.85000002
3.8499999 -19.15 0.94999999
